ply
format ascii 1.0
element vertex 1618
property float x
property float y
property float z
end_header
3.240566 1.832397 1.6996071
3.261323 1.8344479 1.6779475
3.3028374 1.8253173 1.6346282
3.3235946 1.8291054 1.6129684
3.3443518 1.8279158 1.5913088
3.3651087 1.8334638 1.5696492
3.538386 1.8580247 1.7357063
3.3921838 1.8656143 1.8449072
3.4544551 1.8550543 1.7799282
3.475212 1.8582994 1.7582686
3.4959693 1.8571097 1.7366089
3.5167265 1.8658583 1.7149491
3.370524 1.8511395 1.8241501
3.3912811 1.8539627 1.8024905
3.4120383 1.8558185 1.7808307
3.4327955 1.8584043 1.759171
3.4535525 1.8556607 1.7375114
3.4743097 1.8548354 1.7158518
3.495067 1.8512099 1.6941922
3.328107 1.8508233 1.8250526
3.3488643 1.8568734 1.8033929
3.3696215 1.8547416 1.7817333
3.3903785 1.8566924 1.7600737
3.4111357 1.8426331 1.7384139
3.4318929 1.8508489 1.7167542
3.45265 1.8489966 1.6950946
3.4734073 1.8508848 1.673435
3.3272047 1.8371202 1.7826358
3.347962 1.8471069 1.7609762
3.368719 1.8438313 1.7393165
3.3894763 1.8482227 1.7176569
3.4517474 1.8394319 1.6526778
3.2847877 1.8416485 1.7835382
3.326302 1.8395407 1.7402189
3.3470592 1.8435663 1.7185593
3.3678164 1.845502 1.6968995
3.3885734 1.8432076 1.6752398
3.263128 1.8400427 1.7627811
3.2838852 1.8436204 1.7411214
3.3669138 1.8398452 1.6544827
3.387671 1.8419745 1.6328231
3.3452542 1.8370486 1.6337256
3.3867683 1.8441677 1.5904063
3.3028374 1.8414446 1.6346282
3.3235946 1.8396671 1.6129684
3.3930862 1.8852466 1.887324
3.4138432 1.8745079 1.8656642
3.4346004 1.8771621 1.8440046
3.4553576 1.8690317 1.822345
3.4761147 1.8724356 1.8006853
3.496872 1.874599 1.7790256
3.517629 1.8751242 1.757366
3.3714266 1.8677986 1.8665669
3.4129407 1.8679501 1.8232476
3.433698 1.8744771 1.8015878
3.3497667 1.869676 1.8458097
3.328107 1.8750128 1.8250526
3.3064475 1.8746797 1.8042955
3.3470592 1.8750714 1.7185593
3.4300876 1.8751756 1.6319206
3.3046424 1.8763328 1.7194618
3.3669138 1.8794657 1.6544827
3.387671 1.8780469 1.6328231
3.3921838 1.9147464 1.8449072
3.3497667 1.9143182 1.8458097
3.3903785 1.9168584 1.7600737
3.4111357 1.9149251 1.7384139
3.4734073 1.9185741 1.673435
3.368719 1.9141216 1.7393165
3.1727042 1.7761058 1.5102681
3.1974638 1.7761058 1.4844319
3.0600839 1.7761058 1.5844268
3.1644914 1.7761058 1.4754794
3.1957057 1.7761058 1.4429078
3.0527158 1.7761058 1.5487566
3.1239557 1.7761058 1.474419
3.130687 1.7761058 1.4673952
3.1752644 1.7761058 1.4208796
3.2773774 1.8061057 1.5311197
3.281368 1.8061057 1.5269554
3.1144876 1.8061057 1.6577332
3.1499763 1.8061057 1.6207017
3.1781754 1.8061057 1.5912763
3.232418 1.8061057 1.534675
3.196682 1.8361057 1.7020407
3.2373848 1.8361057 1.6595682
3.2814023 1.8361057 1.6136365
3.3376863 1.8361057 1.5549054
3.2252986 1.8361057 1.6288213
3.293722 1.8361057 1.5574229
3.173062 1.7761058 1.5102603
3.198469 1.7761058 1.4930568
3.0829418 1.7761058 1.5901029
3.1089723 1.7761058 1.5734968
3.1107774 1.7761058 1.533675
3.13101 1.7761058 1.5115126
3.1858773 1.7761058 1.4809899
3.2169368 1.7761058 1.4276514
3.0547023 1.7761058 1.56304
3.1314175 1.7761058 1.4703511
3.166419 1.7761058 1.4623424
3.183431 1.7761058 1.4370934
3.2019548 1.7761058 1.4132937
3.2911994 1.8061057 1.5403714
3.1580503 1.8061057 1.6205299
3.187417 1.8061057 1.607121
3.241691 1.8061057 1.5344778
3.2800426 1.8061057 1.4881277
3.1132946 1.8061057 1.6191909
3.1782827 1.8061057 1.5568155
3.196875 1.8061057 1.5330813
3.1986353 1.8361057 1.7009758
3.23937 1.8361057 1.6984612
3.2727633 1.8361057 1.6473591
3.3214216 1.8361057 1.6108861
3.342886 1.8361057 1.5899043
3.1979752 1.8361057 1.7003429
3.2043803 1.8361057 1.6649294
3.2587547 1.8361057 1.6339343
3.2809644 1.8361057 1.6136667
3.3091106 1.8361057 1.5575364
3.2252808 1.8361057 1.601855
3.2453914 1.8361057 1.5795758
3.2644353 1.8361057 1.5562744
3.1728792 1.7756125 1.5100852
3.1936364 1.7747352 1.4884256
3.068191 1.7723228 1.5759668
3.0889482 1.7716708 1.5543071
3.1097054 1.7746209 1.5326475
3.1304624 1.7753471 1.5109879
3.1512196 1.773509 1.4893281
3.213491 1.7722474 1.4243492
3.0672886 1.7731277 1.53355
3.0880456 1.773779 1.5118904
3.1088028 1.772912 1.4902308
3.1503172 1.7660751 1.4469113
3.1710744 1.7755746 1.4252517
3.2793727 1.7984296 1.5290375
3.1539273 1.7957356 1.6165787
3.1746845 1.7971877 1.5949191
3.236956 1.7915955 1.52994
3.257713 1.7955168 1.5082804
3.27847 1.7898372 1.4866208
3.1115103 1.8036348 1.6174811
3.1322675 1.7925693 1.5958214
3.1530247 1.7933832 1.5741618
3.1737819 1.7998718 1.5525022
3.194539 1.8028703 1.5308424
3.2152963 1.7837282 1.5091827
3.2360532 1.8020406 1.4875231
3.2568104 1.7823949 1.4658635
3.0898507 1.7809114 1.596724
3.1106079 1.7775136 1.5750643
3.131365 1.7988255 1.5534047
3.152122 1.799781 1.531745
3.2143936 1.7840703 1.466766
3.2351508 1.7887541 1.4451064
3.1719768 1.7808071 1.4676685
3.192734 1.7764443 1.4460088
3.0465314 1.7795373 1.5552098
3.12956 1.7767271 1.4685711
3.2396634 1.8281395 1.6571903
3.2604206 1.827272 1.6355307
3.2811778 1.8349854 1.6138711
3.343449 1.813256 1.5488921
3.1764896 1.8156966 1.6797526
3.1972466 1.8161076 1.658093
3.2180037 1.8164624 1.6364334
3.3010323 1.8106922 1.5497946
3.3217895 1.8286325 1.528135
3.15483 1.8286128 1.6589955
3.175587 1.8294257 1.6373358
3.1963441 1.8129753 1.6156762
3.2171013 1.8141102 1.5940166
3.2378585 1.8266387 1.5723568
3.2586155 1.8286431 1.5506971
3.30013 1.8280519 1.5073779
3.1331701 1.8272449 1.6382384
3.216199 1.826412 1.5515996
2.9562132 1.7161057 1.3459449
2.9598022 1.7161057 1.3422
3.0119002 1.7161057 1.2878366
2.8831556 1.7161057 1.3788208
2.9255238 1.7161057 1.3346103
2.9709778 1.7161057 1.2871798
2.9793305 1.7161057 1.2784641
3.1683528 1.7461057 1.384733
3.147782 1.7461057 1.3628397
3.0593784 1.7461057 1.4117286
3.0819035 1.7461057 1.388224
2.9472685 1.7461057 1.4853547
3.0092728 1.7461057 1.4206542
3.0263562 1.7461057 1.402828
3.1017878 1.7461057 1.3241166
2.959391 1.7161057 1.347045
3.0350332 1.7161057 1.2948794
3.041639 1.7161057 1.259658
2.87882 1.7161057 1.3944865
2.9652565 1.7161057 1.3111137
3.1729772 1.7461057 1.3855236
3.0742233 1.7461057 1.4155401
3.14671 1.7461057 1.3603507
2.981503 1.7461057 1.4928908
2.9951243 1.7461057 1.4643928
3.0057871 1.7461057 1.4330595
3.0835476 1.7461057 1.382924
3.0934825 1.7461057 1.350893
3.0138588 1.7461057 1.3992428
3.1023207 1.7461057 1.3178113
3.0363805 1.7761058 1.5454819
3.127328 1.7761058 1.466432
3.188572 1.7761058 1.4004685
2.957185 1.7156211 1.3449308
3.0194566 1.7119128 1.2799517
3.0402136 1.7158053 1.2582921
2.873254 1.7145317 1.3891526
2.9355254 1.7110218 1.3241736
2.9562826 1.7136902 1.3025138
2.997797 1.707346 1.2591946
3.0185542 1.7115238 1.237535
3.1701717 1.7450156 1.382835
3.1485121 1.745539 1.3620778
3.0645812 1.7432684 1.4062997
2.9598927 1.7389169 1.4721812
2.98065 1.7423344 1.4505216
3.0014071 1.7435758 1.4288619
3.0429215 1.7386254 1.3855425
3.0636785 1.7407186 1.3638829
3.0844357 1.7400064 1.3422233
2.9382331 1.7326429 1.451424
2.95899 1.7353827 1.4297643
2.9797473 1.7390269 1.4081047
3.0005045 1.73882 1.386445
3.0212617 1.7311779 1.3647853
3.042019 1.7340951 1.3431256
3.0627759 1.7299801 1.321466
3.083533 1.737475 1.2998064
2.9165733 1.7360816 1.4306668
2.9373305 1.7305281 1.4090072
2.9580877 1.7331122 1.3873475
2.978845 1.7250475 1.3656878
2.999602 1.724789 1.3440281
3.020359 1.7289022 1.3223685
3.0411162 1.7191632 1.3007089
3.0618734 1.7244483 1.2790492
2.8949137 1.7251672 1.4099097
2.9156709 1.723887 1.38825
2.936428 1.7283734 1.3665904
2.9986994 1.7252507 1.3016114
2.9147685 1.7223339 1.3458333
2.9770398 1.717432 1.2808542
3.0248718 1.7664484 1.5344527
3.045629 1.7579931 1.512793
3.066386 1.7620006 1.4911333
3.0871432 1.7601825 1.4694736
3.1079004 1.7658252 1.4478139
3.1286576 1.7606883 1.4261543
3.1494145 1.7602768 1.4044946
3.0032122 1.7573712 1.5136955
3.0239694 1.7547863 1.4920357
3.0447264 1.7574034 1.4703761
3.0654836 1.7614217 1.4487165
3.0862408 1.7532513 1.4270568
3.106998 1.7565925 1.4053972
3.127755 1.7596406 1.3837374
2.9815526 1.7461352 1.4929384
3.0023098 1.749832 1.4712787
3.0230668 1.7518518 1.449619
3.043824 1.755108 1.4279594
3.1060953 1.7503763 1.3629804
3.1268525 1.752962 1.3413208
2.7817264 1.6861057 1.2678668
2.7939374 1.6861057 1.255125
2.84366 1.6861057 1.2032403
2.8614776 1.6861057 1.1846482
2.8976445 1.6861057 1.1469086
2.7291343 1.6861057 1.2793872
2.7726755 1.6861057 1.2339529
2.8174896 1.6861057 1.1871902
2.8557165 1.6861057 1.1473012
2.8731198 1.6861057 1.1291411
2.7069538 1.6861057 1.2591736
2.8315835 1.6861057 1.129125
2.8546019 1.6861057 1.1051059
2.6841788 1.6861057 1.2395804
2.7361882 1.6861057 1.1853096
2.7435048 1.6861057 1.177675
2.8014295 1.6861057 1.1172316
2.8050008 1.6861057 1.113505
2.7959998 1.6861057 1.2735653
2.8663673 1.6861057 1.2163452
2.9161248 1.6861057 1.1393739
2.7523985 1.6861057 1.273333
2.8588455 1.6861057 1.1675849
2.7648873 1.6861057 1.2021976
2.7958696 1.6861057 1.1903371
2.7581158 1.6861057 1.1957082
2.8089373 1.6861057 1.1197565
2.8391669 1.6861057 1.1071745
2.785713 1.6843061 1.2637072
2.8479843 1.6841851 1.1987281
2.9102557 1.6811746 1.1337492
2.7432961 1.6797793 1.2646097
2.764053 1.6842963 1.24295
2.8263247 1.6815529 1.177971
2.8470817 1.6847969 1.1563114
2.888596 1.6799189 1.112992
2.7216365 1.6782653 1.2438526
2.7423935 1.6822693 1.2221929
2.7631507 1.6858991 1.2005333
2.783908 1.6769007 1.1788737
2.804665 1.6809405 1.1572139
2.825422 1.6847439 1.1355543
2.8669364 1.6809798 1.092235
2.6999767 1.6793488 1.2230955
2.720734 1.6835959 1.2014358
2.762248 1.6778479 1.1581165
2.7830052 1.6822227 1.1364567
2.8245196 1.6778587 1.0931375
2.8452768 1.6826249 1.0714779
2.8679733 1.7161057 1.3513044
2.901133 1.7161057 1.316703
2.9705873 1.7161057 1.2746706
2.8691711 1.7161057 1.3436879
2.8788016 1.7161057 1.3113651
2.8515944 1.7120193 1.3683954
2.9138658 1.7067175 1.3034165
2.934623 1.7143643 1.2817568
2.9553802 1.7109182 1.2600971
2.9761374 1.7087597 1.2384374
2.9968944 1.7059728 1.2167778
2.8299348 1.7052166 1.3476384
2.850692 1.7049918 1.3259786
2.871449 1.7099363 1.304319
2.8922062 1.7026919 1.2826594
2.9129634 1.7079649 1.2609997
2.9337206 1.7080714 1.2393401
2.9544775 1.6997627 1.2176803
2.9752347 1.7040966 1.1960207
2.8082752 1.7026677 1.3268813
2.8290324 1.6956449 1.3052216
2.8497894 1.6964236 1.283562
2.8705466 1.7015315 1.2619022
2.8913038 1.702622 1.2402425
2.912061 1.7021586 1.2185829
2.932818 1.6948155 1.1969233
2.9535751 1.6998583 1.1752636
2.7866156 1.698888 1.3061241
2.8073726 1.6898158 1.2844644
2.8281298 1.6912118 1.2628047
2.848887 1.6965407 1.2411451
2.8696442 1.686863 1.2194854
2.8904011 1.6911311 1.1978258
2.9111583 1.6947058 1.176166
2.9319155 1.6996317 1.1545064
2.7649558 1.6950612 1.2853669
2.80647 1.6894366 1.2420475
2.827227 1.6950362 1.2203878
2.8687415 1.687403 1.1770685
2.8894985 1.6904557 1.1554089
2.7848103 1.6888573 1.2212903
2.8055675 1.6931881 1.1996307
2.8678389 1.6886606 1.1346517
2.8461792 1.6899315 1.1138946
2.741491 1.6870496 1.1797762
2.8037624 1.686583 1.1147971
2.7398145 1.6861057 1.1781696
2.8029592 1.6861057 1.1140274
2.678317 1.6801214 1.2023383
2.6990743 1.6855448 1.1806786
2.7198315 1.6748564 1.159019
2.7405884 1.6795092 1.1373594
2.7613456 1.6824762 1.1156996
2.7821028 1.6733363 1.09404
2.80286 1.6786083 1.0723803
2.823617 1.6823092 1.0507207
2.6566575 1.680717 1.1815813
2.6774147 1.67141 1.1599215
2.6981719 1.6752101 1.1382619
2.7189288 1.6801594 1.1166023
2.739686 1.6818362 1.0949426
2.7604432 1.6757022 1.073283
2.7812004 1.6801269 1.0516232
2.8019574 1.6857162 1.0299636
2.6349978 1.6771244 1.1608242
2.655755 1.6726615 1.1391644
2.676512 1.6766562 1.1175048
2.6972692 1.67764 1.0958451
2.7180264 1.6733416 1.0741854
2.7387836 1.6785681 1.0525258
2.7595406 1.6806973 1.0308661
2.7802978 1.6739144 1.0092065
2.6133382 1.67066 1.140067
2.6340954 1.6744769 1.1184072
2.6548524 1.6795038 1.0967476
2.6756096 1.6702254 1.075088
2.6963668 1.6763703 1.0534283
2.717124 1.6816752 1.0317687
2.737881 1.6712703 1.010109
2.7586381 1.6755877 0.98844934
2.5916784 1.672384 1.1193098
2.6124356 1.6767353 1.09765
2.6331925 1.6680723 1.0759904
2.6539497 1.673327 1.0543307
2.674707 1.6778375 1.032671
2.6954641 1.669674 1.0110114
2.716221 1.6744175 0.98935175
2.7369783 1.6788398 0.96769214
2.5700188 1.6761758 1.0985526
2.590776 1.6665037 1.0768929
2.611533 1.6714582 1.0552332
2.6322901 1.6770244 1.0335736
2.6530473 1.668484 1.0119139
2.6738045 1.6720074 0.9902543
2.6945615 1.6762896 0.96859455
2.7153187 1.6665859 0.94693494
2.548359 1.6666523 1.0777955
2.569116 1.6719933 1.0561358
2.5898733 1.676564 1.0344762
2.6106305 1.6669021 1.0128164
2.6313877 1.6708875 0.9911567
2.6521447 1.6753721 0.9694971
2.6729019 1.6667281 0.9478375
2.693659 1.6709635 0.92617786
2.5266995 1.6718793 1.0570384
2.5474565 1.6770757 1.0353787
2.5682137 1.6674092 1.0137191
2.588971 1.6731676 0.99205935
2.609728 1.6765506 0.9703996
2.630485 1.6673331 0.94874
2.6512423 1.6714898 0.9270804
2.6719995 1.6764139 0.9054208
2.3728395 1.6561058 0.9140781
2.3787286 1.6561058 0.90793276
2.377764 1.6561058 0.914309
2.3722725 1.6561058 0.9090462
2.3750818 1.6551865 0.9117384
2.5050397 1.6771076 1.0362812
2.525797 1.6679163 1.0146215
2.546554 1.6730093 0.9929619
2.567311 1.6723758 0.9713023
2.5880682 1.6683667 0.94964254
2.6088254 1.6733304 0.9279829
2.6295826 1.6641275 0.9063232
2.6503396 1.6692507 0.8846636
2.48338 1.6689311 1.0155241
2.5041373 1.6729978 0.9938644
2.5248945 1.665342 0.9722048
2.5456514 1.6702783 0.9505451
2.5664086 1.6764609 0.92888534
2.5871658 1.6667957 0.9072257
2.607923 1.671594 0.8855661
2.62868 1.6767795 0.8639065
2.4617205 1.6746931 0.99476707
2.4824777 1.665027 0.97310734
2.5032349 1.670154 0.9514477
2.5239918 1.676544 0.929788
2.544749 1.6680657 0.90812826
2.5655062 1.674058 0.88646865
2.5862634 1.6717068 0.86480904
2.6070204 1.6711057 0.8431494
2.4400609 1.6659228 0.9740099
2.460818 1.6719186 0.95235014
2.481575 1.6643299 0.9306905
2.5023322 1.6703836 0.9090309
2.5230894 1.6750798 0.8873712
2.5438466 1.6685131 0.86571157
2.5646036 1.6736985 0.84405184
2.5853608 1.6794777 0.8223922
2.418401 1.6717997 0.95325255
2.4391582 1.665234 0.9315928
2.4599154 1.6721734 0.9099332
2.4806724 1.6707791 0.8882736
2.5014296 1.6698198 0.86661386
2.5221868 1.6769687 0.84495425
2.542944 1.6678759 0.8232945
2.563701 1.6738802 0.8016349
2.3967414 1.6654669 0.9324955
2.4174986 1.6702795 0.91083574
2.4382555 1.6646733 0.88917613
2.4590127 1.6697857 0.8675165
2.47977 1.6709267 0.8458568
2.5005271 1.6728774 0.8241972
2.521284 1.6788704 0.80253744
2.395839 1.6648897 0.89007866
2.416596 1.6747869 0.86841905
2.4581103 1.6736555 0.8250996
2.4788675 1.6739976 0.80344
2.4996245 1.672901 0.78178036
3.5075533 1.8061057 1.4210111
3.6595838 1.8361057 1.5658803
3.4908755 1.8361057 1.6552072
3.5039318 1.8361057 1.6415831
3.5710862 1.8361057 1.5715089
3.6288605 1.8361057 1.5112224
3.4853635 1.8361057 1.6176004
3.51628 1.8361057 1.5853397
3.5625634 1.8361057 1.5370436
3.4325397 1.8361057 1.6293619
3.4861279 1.8361057 1.5734438
3.441591 1.8361057 1.5765585
3.4805963 1.8361057 1.5358572
3.4527314 1.8361057 1.5215752
3.4716706 1.8361057 1.5018125
3.3654575 1.8361057 1.5692853
3.4003944 1.8361057 1.5328293
3.419735 1.8661057 1.5560063
3.5150928 1.8061057 1.4225205
3.5326028 1.8061057 1.397749
3.6670654 1.8361057 1.5681604
3.6829996 1.8361057 1.5418789
3.6578317 1.8361057 1.5593115
3.6826415 1.8361057 1.5415356
3.4992583 1.8361057 1.6566571
3.5903258 1.8361057 1.5777225
3.604207 1.8361057 1.5494733
3.6209106 1.8361057 1.5239288
3.4849248 1.8361057 1.642921
3.5024295 1.8361057 1.6181443
3.5147972 1.8361057 1.5884446
3.5671244 1.8361057 1.5554876
3.6365194 1.8361057 1.4973356
3.4856327 1.8361057 1.6020474
3.527947 1.8361057 1.5594946
3.540414 1.8361057 1.5298903
3.4430103 1.8361057 1.6027528
3.4863405 1.8361057 1.5611736
3.4393733 1.8361057 1.5577154
3.4503078 1.8361057 1.5266424
3.4742932 1.8361057 1.5080764
3.4054167 1.8361057 1.5667257
3.4679751 1.8361057 1.5020219
3.4237466 1.8661057 1.5842918
3.482709 1.8961058 1.5992455
3.5104089 1.803729 1.4180315
3.5311658 1.8056859 1.3963718
3.6620264 1.8345562 1.5633315
3.6827836 1.8360478 1.5416719
3.4941642 1.8348355 1.6517754
3.5771928 1.8325706 1.5651367
3.59795 1.8339896 1.543477
3.6187072 1.8348095 1.5218173
3.4932618 1.8335937 1.6093585
3.514019 1.835859 1.5876988
3.5762904 1.8280251 1.5227199
3.5970476 1.829197 1.5010601
3.6178045 1.8266224 1.4794005
3.4923592 1.8336692 1.5669415
3.5131164 1.8316528 1.5452819
3.5338733 1.832601 1.5236223
3.5546305 1.8354261 1.5019625
3.5753877 1.8258615 1.4803028
3.5961447 1.8277668 1.4586432
3.4291852 1.8272839 1.5895038
3.4914565 1.8290219 1.5245248
3.5122137 1.8311795 1.5028651
3.532971 1.8298997 1.4812055
3.553728 1.8341062 1.4595457
3.5744853 1.8180431 1.4378861
3.4075255 1.8291298 1.5687467
3.4282827 1.8295113 1.5470871
3.44904 1.8351822 1.5254273
3.490554 1.8207061 1.482108
3.511311 1.8159251 1.4604484
3.5320685 1.8187792 1.4387887
3.5528255 1.8171388 1.417129
3.406623 1.81992 1.5263299
3.42738 1.8150597 1.5046701
3.4481373 1.8180144 1.4830105
3.4688945 1.8149426 1.4613509
3.4896517 1.8163437 1.4396912
3.5591433 1.8652545 1.7140467
3.5799003 1.8642364 1.6923871
3.6006575 1.860904 1.6707273
3.6214147 1.8641615 1.6490676
3.6421719 1.8520228 1.627408
3.6629288 1.8429426 1.6057484
3.6836863 1.8457714 1.5840887
3.7044432 1.8469719 1.562429
3.5374837 1.8595327 1.6932895
3.5582407 1.8600206 1.6716299
3.5789979 1.8474811 1.6499702
3.599755 1.8499867 1.6283106
3.620512 1.8549942 1.6066508
3.6412692 1.8471451 1.5849912
3.5158238 1.8495553 1.6725324
3.536581 1.858025 1.6508728
3.5573382 1.8491279 1.6292131
3.5780954 1.8377936 1.6075535
3.5988526 1.8405286 1.5858938
3.6196096 1.8461417 1.5642341
3.6403668 1.8423392 1.5425744
3.661124 1.8441536 1.5209148
3.5149214 1.842921 1.6301157
3.5356786 1.8497087 1.6084559
3.5564356 1.8458841 1.5867963
3.6394644 1.8369925 1.5001576
3.4725046 1.8420417 1.6310182
3.5347762 1.8403898 1.5660392
3.5555332 1.8408897 1.5443796
3.4508448 1.839447 1.610261
3.471602 1.8416789 1.5886012
3.4075255 1.8394637 1.5687467
3.4508448 1.8795437 1.610261
3.471602 1.8778636 1.5886012
3.511311 1.8844486 1.4604484
3.4941642 1.9164813 1.6517754
3.2750273 1.7761058 1.4468546
3.2785416 1.7761058 1.4431872
3.4193041 1.7761058 1.2963045
3.2481756 1.7761058 1.431515
3.2690513 1.7761058 1.4097317
3.3322258 1.7761058 1.3438104
3.361195 1.7761058 1.3135813
3.386234 1.7761058 1.2874539
3.238096 1.7761058 1.3986745
3.3049035 1.7761058 1.328962
3.378559 1.7761058 1.2521039
3.1940541 1.7761058 1.4012728
3.4258997 1.8061057 1.4628565
3.4335876 1.8061057 1.4548346
3.4978487 1.8061057 1.387779
3.3402383 1.8061057 1.508884
3.478574 1.8061057 1.3645333
3.318089 1.8061057 1.4886378
3.3026013 1.8061057 1.4180814
3.336957 1.8061057 1.3822321
3.3704321 1.8361057 1.4340189
3.3969338 1.8361057 1.4063648
3.2788627 1.7761058 1.4454452
3.431243 1.7761058 1.3006126
3.3504539 1.7761058 1.3478456
3.360661 1.7761058 1.3160756
3.3704116 1.7761058 1.2838678
3.380022 1.7761058 1.251526
3.2365305 1.7761058 1.3633249
3.2686033 1.7761058 1.3525094
3.2843556 1.7761058 1.3260534
3.3787687 1.7761058 1.250325
3.4273715 1.8061057 1.4631099
3.5037522 1.8061057 1.4116524
3.352024 1.8061057 1.515558
3.369943 1.8061057 1.4911783
3.3860989 1.8061057 1.4651091
3.445767 1.8061057 1.4391869
3.4623585 1.8061057 1.4135356
3.4707203 1.8061057 1.3799967
3.4902859 1.8061057 1.3571953
3.4849153 1.8061057 1.3520483
3.3374724 1.8061057 1.4185089
3.3040023 1.8061057 1.3864331
3.3695714 1.8361057 1.5323741
3.3973362 1.8361057 1.4343262
3.2775674 1.7757605 1.4442037
3.4228675 1.7741091 1.2925861
3.2559078 1.7700266 1.4234467
3.3389363 1.7720263 1.336808
3.3596935 1.7758405 1.3151484
3.401208 1.7673044 1.271829
3.2342482 1.7645732 1.4026896
3.3172767 1.7659324 1.3160509
3.338034 1.7702821 1.2943913
3.358791 1.7689369 1.2727315
3.2125885 1.7617176 1.3819324
3.2333455 1.7650999 1.3602728
3.2541027 1.7640767 1.338613
3.27486 1.7655514 1.3169534
3.295617 1.7605311 1.2952938
3.3163743 1.7634311 1.2736341
3.3371315 1.7573844 1.2519743
3.3578885 1.7652715 1.2303147
3.4264777 1.8056344 1.4622535
3.5095062 1.7993573 1.3756148
3.3425465 1.8001072 1.5064753
3.3633037 1.7994379 1.4848157
3.3840609 1.8042471 1.463156
3.404818 1.7951211 1.4414963
3.4255753 1.7971214 1.4198366
3.4463322 1.7924459 1.398177
3.4670894 1.804125 1.3765173
3.3208869 1.7976274 1.4857183
3.341644 1.7975224 1.4640585
3.3624012 1.7944593 1.4423988
3.3831584 1.8048705 1.4207392
3.4039154 1.7931198 1.3990796
3.4246726 1.7955116 1.3774198
3.4454298 1.7923079 1.3557601
3.466187 1.795888 1.3341005
3.2992272 1.7910675 1.464961
3.3199844 1.7864081 1.4433014
3.3407416 1.7960086 1.4216417
3.3614988 1.7827507 1.3999821
3.3822558 1.7894299 1.3783224
3.403013 1.7893702 1.3566628
3.4237702 1.7913748 1.335003
3.4445271 1.7826183 1.3133434
3.2983246 1.7882215 1.4225441
3.339839 1.7780442 1.3792248
3.3605962 1.7833647 1.3575652
3.3813531 1.7816886 1.3359054
3.4021103 1.7855875 1.3142457
3.276665 1.7852521 1.401787
3.2974222 1.7816781 1.3801273
3.3181791 1.7844054 1.3584677
3.3804507 1.7794024 1.2934886
3.2550054 1.7990924 1.3810298
3.2965198 1.7818549 1.3377105
3.379548 1.7763057 1.2510718
3.3642063 1.8175898 1.5272324
3.3849633 1.8168952 1.5055728
3.4057205 1.8173356 1.4839131
3.4472349 1.8077494 1.4405937
3.4679918 1.8096573 1.4189341
3.488749 1.8110458 1.3972744
3.4878466 1.806909 1.3548576
3.3831584 1.8065141 1.4207392
3.4472349 1.8454814 1.4405937
3.404818 1.8480393 1.4414963
3.0419521 1.7161057 1.2564782
3.0952969 1.7161057 1.2008138
3.1212773 1.7161057 1.1737038
3.1809978 1.7161057 1.1113865
3.2018244 1.7161057 1.0896546
3.0510428 1.7161057 1.2036335
3.063974 1.7161057 1.1901401
3.110056 1.7161057 1.1420546
3.1309144 1.7161057 1.1202891
3.170525 1.7461057 1.3824663
3.1553605 1.7461057 1.3549317
3.2260969 1.7461057 1.2811196
3.2459912 1.7461057 1.2603602
3.3088777 1.7461057 1.1947395
3.1388946 1.7461057 1.3287549
3.173857 1.7461057 1.2922724
3.1926248 1.7461057 1.2726885
3.2628157 1.7461057 1.1994458
3.276062 1.7461057 1.1856235
3.1064003 1.7461057 1.3193038
3.116136 1.7161057 1.2063953
3.1948094 1.7161057 1.1155827
3.048282 1.7161057 1.2244723
3.1208901 1.7161057 1.1693991
3.1530879 1.7161057 1.1171516
3.2022254 1.7161057 1.0811379
3.2409906 1.7461057 1.2844954
3.3248253 1.7461057 1.1986294
3.1648722 1.7461057 1.3362044
3.1707375 1.7461057 1.3002734
3.2472014 1.7461057 1.2488954
3.2581086 1.7461057 1.2177964
3.1825314 1.7461057 1.270024
3.2632728 1.7461057 1.1811935
3.1024852 1.7121171 1.193313
3.1855137 1.713609 1.1066744
3.0393112 1.7138214 1.2158753
3.0808256 1.708112 1.1725559
3.1015825 1.7123729 1.1508963
3.143097 1.7078177 1.107577
3.1638541 1.7090381 1.0859172
3.1846113 1.7129109 1.0642576
3.2315407 1.7430934 1.2754391
3.3145692 1.7424628 1.1888005
3.1476097 1.744176 1.319661
3.1683667 1.7456142 1.2980014
3.209881 1.7377731 1.2546821
3.230638 1.7414958 1.2330225
3.2513952 1.742079 1.2113627
3.2929096 1.7375659 1.1680434
3.1259499 1.7360605 1.298904
3.146707 1.7388635 1.2772443
3.1674643 1.7385339 1.2555846
3.1882215 1.7330202 1.2339249
3.2089787 1.7359413 1.2122653
3.2297356 1.7393433 1.1906056
3.2504928 1.7402337 1.1689459
3.27125 1.7326058 1.1472863
3.10429 1.7306514 1.2781466
3.1250472 1.7335962 1.256487
3.1458044 1.7298526 1.2348273
3.1665616 1.7266916 1.2131677
3.1873188 1.7300309 1.191508
3.2080758 1.7344257 1.1698483
3.228833 1.7307806 1.1481886
3.2495902 1.7267884 1.126529
3.0826304 1.7243929 1.2573895
3.1033876 1.7285037 1.2357299
3.1241448 1.7204751 1.2140702
3.144902 1.7212914 1.1924105
3.165659 1.7255522 1.1707509
3.1864161 1.7324799 1.1490912
3.2071733 1.7239897 1.1274315
3.2279305 1.721253 1.1057719
3.081728 1.7240299 1.2149727
3.1232424 1.7166866 1.1716534
3.1439993 1.7218658 1.1499938
3.1647565 1.7259781 1.1283342
3.0600684 1.7185279 1.1942157
3.1223397 1.7215172 1.1292366
3.190929 1.7735062 1.3611753
3.2116861 1.769562 1.3395157
3.2324433 1.7637345 1.317856
3.2532003 1.7543374 1.2961963
3.2739575 1.7530783 1.2745366
3.2947145 1.7568024 1.252877
3.3154716 1.760999 1.2312173
3.3362288 1.7531395 1.2095577
3.1692693 1.7485042 1.3404182
3.1900263 1.7511309 1.3187585
3.2107835 1.7548345 1.2970988
3.2522979 1.7488025 1.2537795
3.2730548 1.7515934 1.2321199
3.2938123 1.755298 1.2104602
3.2721524 1.7481912 1.189703
3.0143857 1.6861057 1.0684505
3.0163403 1.6861057 1.0664108
2.93718 1.6861057 1.1056541
2.9886212 1.6861057 1.0519763
3.0068738 1.6861057 1.03293
3.0442493 1.6861057 0.9939295
2.9180667 1.6861057 1.08224
2.9364357 1.6861057 1.0630721
2.9928849 1.6861057 1.0041686
3.0168438 1.6861057 0.97916806
2.8886328 1.6861057 1.0695951
2.9153 1.6861057 1.0417687
2.8612955 1.6861057 1.0547625
2.8677835 1.6861057 1.0479923
3.015292 1.6861057 1.0682012
2.9448698 1.6861057 1.1253691
3.0609195 1.6861057 0.9872718
2.959836 1.6861057 1.0566077
2.992948 1.6861057 1.0052365
3.0104737 1.6861057 0.9804802
2.8847487 1.6861057 1.0677531
2.9033806 1.6861057 1.044057
3.014944 1.6858193 1.0678678
2.9310129 1.6851084 1.1120895
2.9932842 1.6840004 1.0471106
3.0555556 1.6814123 0.9821315
2.909353 1.6843196 1.0913324
2.9508674 1.6800326 1.048013
2.9716246 1.6832733 1.0263534
2.9923816 1.6860746 1.0046937
2.8876934 1.6859576 1.0705754
2.9292078 1.6797557 1.0272559
2.949965 1.6823947 1.0055963
2.9707222 1.6833674 0.98393667
2.9914792 1.6757212 0.96227705
2.886791 1.6758714 1.0281585
2.9075482 1.6791474 1.0064988
2.9283051 1.6824234 0.9848392
2.9490623 1.6724821 0.96317947
3.0490572 1.7161057 1.1836632
3.105355 1.7161057 1.1129595
3.0176516 1.7098258 1.1951182
3.0384088 1.7123373 1.1734585
3.059166 1.708172 1.1517987
3.079923 1.7123982 1.1301391
3.10068 1.7135557 1.1084795
3.1214373 1.7032148 1.0868199
3.1421945 1.7053473 1.0651602
3.1629515 1.7028406 1.0435004
2.995992 1.7016029 1.1743611
3.016749 1.6973791 1.1527014
3.037506 1.7014073 1.1310416
3.0582633 1.7083379 1.109382
3.0790205 1.7060702 1.0877224
3.0997775 1.699053 1.0660628
3.1205347 1.7034031 1.0444031
3.1412919 1.7036667 1.0227433
2.9743323 1.6982794 1.1536039
2.9950893 1.6973234 1.1319443
3.0158465 1.7000673 1.1102846
3.0366037 1.7036605 1.088625
3.057361 1.6998273 1.0669652
3.0781178 1.6953037 1.0453056
3.098875 1.6992333 1.0236459
3.1196322 1.6923964 1.0019863
2.9526725 1.6874229 1.1328468
2.9734297 1.6917951 1.1111871
2.9941869 1.6974076 1.0895274
3.0357013 1.6907523 1.0462081
3.0564582 1.6944011 1.0245485
3.0772154 1.6983392 1.0028888
2.9517698 1.6896017 1.0904299
2.972527 1.6946998 1.0687702
3.0140414 1.6874543 1.0254508
3.0347984 1.690438 1.0037912
2.9301102 1.6891676 1.0696727
3.0131388 1.6876454 0.98303413
2.9084506 1.6893243 1.0489156
2.8660338 1.6871352 1.0498182
2.8644032 1.6861057 1.0482557
2.8443742 1.6734576 1.0290611
2.8651314 1.6773106 1.0074013
2.8858886 1.6806189 0.9857416
2.9066458 1.6804911 0.964082
2.9274027 1.673452 0.9424224
2.8227146 1.6748857 1.008304
2.8434718 1.6787019 0.98664427
2.864229 1.6789976 0.96498454
2.884986 1.6704873 0.9433249
2.9057431 1.6756419 0.9216653
2.801055 1.6778611 0.9875468
2.821812 1.6809627 0.9658872
2.842569 1.6698381 0.94422746
2.8633263 1.6743408 0.92256784
2.7793953 1.6794038 0.9667897
2.8001523 1.6689321 0.94513
2.8209095 1.6717079 0.92347026
2.8416667 1.67668 0.90181065
2.7577355 1.6681991 0.9460324
2.7784925 1.6721457 0.9243728
2.7992496 1.6760923 0.90271306
2.7360759 1.6710416 0.9252753
2.7568328 1.6754383 0.9036156
2.77759 1.6665374 0.88195586
2.714416 1.6745269 0.9045181
2.7351732 1.6674999 0.8828585
2.6927564 1.6675559 0.88376105
2.7135136 1.6733143 0.86210144
2.6710968 1.6757839 0.86300397
2.6494372 1.6705515 0.8422468
3.8025768 1.8061057 1.329953
3.69699 1.8061057 1.3534131
3.7183542 1.8061057 1.3311199
3.689713 1.8061057 1.3176483
3.61068 1.8061057 1.3567588
3.6483002 1.8061057 1.317503
3.6817904 1.8061057 1.2825569
3.5347738 1.8061057 1.3926072
3.579732 1.8061057 1.3456941
3.7574072 1.8361057 1.5071623
3.6839786 1.8361057 1.5404248
3.7488844 1.8361057 1.4726969
3.6734922 1.8361057 1.5080087
3.6646051 1.8361057 1.4739237
3.813155 1.8061057 1.3341957
3.8003263 1.8061057 1.3219016
3.7075562 1.8061057 1.3576528
3.6956437 1.8061057 1.3462367
3.719887 1.8061057 1.327918
3.7375555 1.8061057 1.3032982
3.7600923 1.8061057 1.2833439
3.6245713 1.8061057 1.3612295
3.6390152 1.8061057 1.3335197
3.6848843 1.8061057 1.2943738
3.6540651 1.8061057 1.3063906
3.6679018 1.8061057 1.2780988
3.7513688 1.8361057 1.4827435
3.7005615 1.8361057 1.5171571
3.717021 1.8361057 1.4913791
3.736055 1.8361057 1.4680676
3.6672864 1.8361057 1.4852687
3.6511784 1.8361057 1.4698317
3.8055215 1.8040621 1.3268803
3.6999304 1.8041053 1.3503449
3.699028 1.799753 1.3079281
3.7197852 1.8001193 1.2862684
3.7405424 1.7944756 1.2646087
3.615097 1.8031924 1.35215
3.635854 1.8043543 1.3304904
3.6981256 1.7938658 1.2655113
3.7188826 1.7993505 1.2438517
3.5934372 1.7979605 1.3313929
3.6141944 1.7995962 1.3097332
3.6349516 1.7970145 1.2880735
3.6557088 1.7979152 1.2664139
3.676466 1.7866154 1.2447542
3.697223 1.7890853 1.2230945
3.7667146 1.8302302 1.49745
3.7874718 1.8255291 1.4757903
3.808229 1.8282781 1.4541306
3.8289862 1.8296875 1.432471
3.8497434 1.8195478 1.4108113
3.8705003 1.8205911 1.3891517
3.7658122 1.8250196 1.4550332
3.786569 1.8266273 1.4333736
3.8073263 1.8185335 1.411714
3.8280835 1.8205708 1.3900542
3.8488407 1.8150622 1.3683945
3.681881 1.830154 1.4992551
3.7026381 1.8282826 1.4775954
3.7233953 1.8292178 1.4559357
3.7441525 1.832358 1.4342761
3.7649097 1.8202957 1.4126164
3.7856667 1.8216552 1.3909568
3.806424 1.8100338 1.369297
3.827181 1.813288 1.3476374
3.6809785 1.8253437 1.4568384
3.7017357 1.8185362 1.4351786
3.7224927 1.820574 1.4135189
3.74325 1.8239149 1.3918593
3.764007 1.815973 1.3701997
3.7847643 1.8182268 1.34854
3.6385617 1.8290035 1.4577409
3.659319 1.8332981 1.4360812
3.6800761 1.8210768 1.4144214
3.7008333 1.8098905 1.3927618
3.7215903 1.813026 1.3711022
3.7423475 1.8157743 1.3494425
3.7631047 1.8123002 1.3277828
3.7838616 1.8123342 1.3061231
3.6169019 1.8171642 1.4369836
3.637659 1.8209804 1.415324
3.6584163 1.8152592 1.3936642
3.6791735 1.8169581 1.3720045
3.7206876 1.8065346 1.3286853
3.7414448 1.8086165 1.3070256
3.7622018 1.8067367 1.2853658
3.5952423 1.8202604 1.4162265
3.6159995 1.8093759 1.3945668
3.6367567 1.8131921 1.372907
3.6575136 1.811439 1.3512474
3.6782708 1.8133634 1.3295878
3.5735826 1.8139318 1.3954693
3.5943398 1.8165203 1.3738097
3.6566112 1.8067143 1.3088306
3.6773684 1.8092456 1.287171
3.551923 1.8100779 1.3747122
3.57268 1.8098334 1.3530526
3.7252002 1.842633 1.5407693
3.7459574 1.8433332 1.5191097
3.7035408 1.8377829 1.5200123
3.724298 1.8379909 1.4983525
3.7450552 1.838523 1.4766928
3.6602213 1.8388388 1.478498
3.5231135 1.7461057 1.1446228
3.4198394 1.7461057 1.1656702
3.4310849 1.7461057 1.1539359
3.60766 1.7761058 1.2298346
3.5948682 1.7761058 1.1998241
3.526016 1.7761058 1.2283114
3.4405942 1.7761058 1.2740887
3.4931045 1.7761058 1.219295
3.3799264 1.7761058 1.2506771
3.5646923 1.8061057 1.3180292
3.573363 1.8061057 1.3089814
3.4892132 1.8061057 1.3534317
3.5321248 1.7461057 1.1479796
3.520862 1.7461057 1.137186
3.4208221 1.7461057 1.1659701
3.6218548 1.7761058 1.2339706
3.6399848 1.7761058 1.2097932
3.661308 1.7761058 1.1886761
3.6002746 1.7761058 1.2132897
3.5309854 1.7761058 1.2299913
3.5559025 1.7761058 1.2123184
3.5815141 1.7761058 1.195311
3.4423144 1.7761058 1.269671
3.4539587 1.7761058 1.2392781
3.4673975 1.7761058 1.2106048
3.545591 1.8061057 1.3686442
3.5581431 1.8061057 1.3391215
3.5742807 1.8061057 1.3130344
3.5688386 1.8061057 1.307819
3.5257506 1.7442002 1.141871
3.42016 1.7458701 1.1653357
3.6123893 1.7725706 1.2248996
3.6331465 1.7719504 1.2032399
3.6539037 1.7649368 1.1815803
3.611487 1.7670877 1.1824828
3.632244 1.7636924 1.1608231
3.527556 1.7750324 1.2267047
3.548313 1.7708224 1.2050451
3.56907 1.7683581 1.1833854
3.5898273 1.7574141 1.1617256
3.505896 1.7673448 1.2059474
3.5266533 1.7662269 1.1842878
3.5474102 1.7555408 1.1626282
3.5681674 1.755034 1.1409684
3.421965 1.770628 1.2501694
3.442722 1.7689699 1.2285097
3.4634793 1.7738997 1.2068499
3.4842362 1.7596374 1.1851903
3.5049934 1.7591987 1.1635307
3.4003053 1.7649813 1.2294122
3.4210625 1.7667149 1.2077526
3.4418197 1.7597871 1.1860929
3.4625769 1.7595472 1.1644331
3.4833338 1.753277 1.1427735
3.504091 1.7530249 1.1211139
3.3786457 1.7572879 1.2086551
3.3994029 1.7603863 1.1869954
3.440917 1.7465352 1.143676
3.4616742 1.7468574 1.1220164
3.5302634 1.8013536 1.3539551
3.5510206 1.8021592 1.3322954
3.5925348 1.7932358 1.2889761
3.613292 1.7954783 1.2673165
3.634049 1.7848706 1.2456567
3.6548061 1.7898729 1.223997
3.6755633 1.7842226 1.2023374
3.5086036 1.7945281 1.333198
3.5293608 1.7907085 1.3115383
3.550118 1.7939105 1.2898786
3.5708752 1.7998838 1.268219
3.5916324 1.788511 1.2465593
3.4869442 1.7891797 1.3124409
3.5077012 1.7917471 1.2907813
3.5284584 1.7828926 1.2691215
3.5492156 1.78637 1.2474618
3.5699725 1.7811131 1.2258022
3.5907297 1.7790961 1.2041426
3.4652843 1.7887288 1.2916838
3.4860415 1.7852026 1.2700241
3.5067987 1.7878338 1.2483643
3.4436245 1.7767854 1.2709265
3.4643817 1.779809 1.2492667
3.485139 1.7812896 1.227607
3.5717778 1.8070524 1.3106357
3.2647614 1.7161057 1.0673393
3.2363026 1.7161057 1.0536771
3.201159 1.7161057 1.0469903
3.3888407 1.7461057 1.1546583
3.341951 1.7461057 1.1602283
3.3799 1.7461057 1.1206293
3.2833765 1.7161057 1.0758039
3.4400983 1.7461057 1.1428915
3.4588666 1.7461057 1.1193258
3.336332 1.7461057 1.1681048
3.381257 1.7461057 1.1280539
3.3535366 1.7461057 1.1430404
3.3680947 1.7461057 1.1154399
3.2694447 1.713422 1.0624526
3.247785 1.7098708 1.0416955
3.3985004 1.7396213 1.1445786
3.4192574 1.7401897 1.122919
3.4400146 1.7364523 1.1012594
3.3353264 1.7458118 1.1671408
3.3975978 1.7353506 1.1021618
3.3136668 1.7400793 1.1463838
3.3344238 1.7360779 1.124724
3.355181 1.7406476 1.1030643
3.3759382 1.7307138 1.0814047
3.292007 1.7339329 1.1256266
3.3127642 1.726922 1.103967
3.3335214 1.732127 1.0823072
3.270347 1.7287072 1.1048694
3.2911043 1.7189482 1.0832096
3.3118615 1.7247066 1.0615499
3.2486875 1.7247787 1.0841122
3.227028 1.7209413 1.0633551
3.356986 1.7521404 1.187898
3.3777432 1.7535563 1.1662383
3.3560834 1.746802 1.1454812
3.3768406 1.7479647 1.1238215
3.2001028 1.7161057 1.0375518
3.1837087 1.7109734 1.0218408
3.8237562 1.7761058 1.2211353
3.9589913 1.8061057 1.296813
3.8821914 1.8061057 1.3335937
3.9202576 1.8061057 1.2938726
3.9457018 1.8061057 1.2673218
3.8738544 1.8061057 1.2989347
3.792824 1.8061057 1.2967712
3.7637668 1.8061057 1.2837331
3.7607725 1.8061057 1.243499
3.7615182 1.8061057 1.2427207
3.8260636 1.7761058 1.221911
3.909363 1.8061057 1.3432913
3.924838 1.8061057 1.3165693
3.8766782 1.8061057 1.3119684
3.9245028 1.8061057 1.2746965
3.834238 1.8061057 1.3128483
3.855321 1.8061057 1.2915009
3.7617173 1.8061057 1.2433497
3.7607899 1.8061057 1.2424608
3.974286 1.7948455 1.2808533
3.890355 1.8005264 1.3250753
3.9111123 1.8020025 1.3034155
3.8894525 1.7964345 1.2826583
3.9102097 1.795997 1.2609987
3.8262787 1.801694 1.3052206
3.8470356 1.8020188 1.283561
3.8677928 1.8041216 1.2619013
3.8046188 1.7977487 1.2844635
3.825376 1.7902368 1.2628039
3.8461332 1.7886907 1.2411442
3.782959 1.7959286 1.2637062
3.8037162 1.7956042 1.2420466
3.7820566 1.7863506 1.2212895
3.7396398 1.7935269 1.222192
3.760397 1.7869297 1.2005323
3.7179801 1.7794306 1.2014349
3.8912575 1.8067997 1.367492
3.9120145 1.8077428 1.3458323
3.9327717 1.8105017 1.3241726
3.953529 1.809913 1.302513
3.869598 1.8155688 1.3467349
3.9318693 1.812639 1.2817558
3.847938 1.8097019 1.3259778
3.8686953 1.8096863 1.3043181
3.7612994 1.8062202 1.2429491
3.6963205 1.7768719 1.1806778
2.728383 1.8661057 2.5809288
2.980043 1.8961058 2.5351195
2.8935542 1.8961058 2.4519343
2.8664656 1.9261057 2.7403522
2.8872457 1.9261057 2.6753101
2.8325071 1.9261057 2.6890705
2.8405907 1.9261057 2.6806352
2.9010258 1.9261057 2.6175723
2.8499513 1.9261057 2.627509
2.8917167 1.9261057 2.5839276
2.899261 1.9261057 2.5760555
2.7754116 1.9261057 2.661931
2.8341656 1.9261057 2.6006224
2.8421607 1.9261057 2.5922794
2.7663245 1.9261057 2.6280546
2.7776222 1.9261057 2.6162658
2.8319805 1.9261057 2.559544
2.8486042 1.9261057 2.5421972
2.790854 1.9261057 2.5591002
2.793028 1.9261057 2.5568314
2.7110286 1.8661057 2.604899
2.9905825 1.8961058 2.540389
2.974528 1.8961058 2.525004
2.9007442 1.8961058 2.4542944
2.7216308 1.8961058 2.6150594
2.7462177 1.8961058 2.59707
2.7662036 1.8961058 2.5746713
2.7839146 1.8961058 2.5500922
2.8015265 1.8961058 2.5254183
2.8204608 1.8961058 2.5020118
2.8388088 1.8961058 2.4780433
2.8634543 1.9261057 2.7509732
2.8732884 1.9261057 2.7188456
2.88224 1.9261057 2.6858726
2.841062 1.9261057 2.687962
2.8810225 1.9261057 2.6431537
2.9008338 1.9261057 2.6205878
2.8317497 1.9261057 2.679038
2.8764944 1.9261057 2.6388142
2.8885655 1.9261057 2.6088307
2.8993678 1.9261057 2.577631
2.8119066 1.9261057 2.6600215
2.833145 1.9261057 2.638823
2.8442795 1.9261057 2.6079419
2.8983824 1.9261057 2.5766866
2.770629 1.9261057 2.662016
2.7782493 1.9261057 2.6277666
2.8343084 1.9261057 2.5983863
2.8467026 1.9261057 2.5687122
2.767056 1.9261057 2.61704
2.7929206 1.9261057 2.558723
2.8314772 1.9261057 2.554121
2.7911072 1.9261057 2.5569851
2.7081008 1.8625643 2.602093
2.9824562 1.893108 2.5326014
2.8958173 1.8920887 2.4495728
2.7288578 1.8662643 2.5804334
2.749615 1.8711085 2.5587738
2.7703722 1.8757309 2.5371141
2.791129 1.86884 2.5154543
2.8118863 1.8776791 2.4937947
2.8326435 1.8843572 2.472135
2.859718 1.9241731 2.747393
2.8380587 1.9208589 2.726636
2.858816 1.9182452 2.7049763
2.8795729 1.9242352 2.6833167
2.816399 1.9185367 2.7058787
2.8579133 1.9196671 2.6625595
2.8786705 1.9256467 2.6408997
2.8994277 1.9254643 2.61924
2.9824562 1.9043231 2.5326014
2.7947395 1.9114978 2.6851215
2.8154964 1.916933 2.663462
2.8362536 1.9197184 2.6418023
2.8985252 1.9257414 2.5768232
2.7730796 1.9208634 2.6643643
2.835351 1.9233767 2.5993853
2.7721772 1.9137051 2.6219475
2.8344486 1.9204459 2.5569687
2.7920318 1.9235665 2.557871
2.8958173 1.8980128 2.4495728
2.7081008 1.9128258 2.602093
2.7288578 1.9093167 2.5804334
2.749615 1.9120474 2.5587738
2.7703722 1.9094803 2.5371141
2.791129 1.9065975 2.5154543
2.8118863 1.9037938 2.4937947
2.8326435 1.9007207 2.472135
2.9733968 1.8661057 2.3252618
3.0003858 1.8661057 2.297099
2.9929526 1.8961058 2.5216486
2.9305258 1.8961058 2.4567137
2.9589376 1.8961058 2.4270668
3.0076623 1.8961058 2.3762236
3.0513659 1.8961058 2.3306198
2.9071794 1.8961058 2.437717
2.982432 1.8661057 2.3248186
3.0005808 1.8661057 2.3006594
2.9481187 1.8961058 2.458143
3.0363748 1.8961058 2.376514
3.0516768 1.8961058 2.3496265
2.9228961 1.8961058 2.4339714
2.9745526 1.8961058 2.4003716
2.9924574 1.8961058 2.3759785
3.0522861 1.8961058 2.3086586
3.0701683 1.8961058 2.2842436
2.9152641 1.8961058 2.4266572
2.9779434 1.8621244 2.3205173
2.9987006 1.864346 2.2988577
2.9382343 1.8912075 2.4486704
3.0212626 1.8837035 2.3620315
3.0420198 1.8870671 2.3403718
2.9580889 1.8825369 2.3845937
2.978846 1.8803995 2.362934
2.999603 1.8859979 2.3412745
3.0203602 1.8891895 2.319615
3.0411174 1.8856325 2.297955
3.0618744 1.8862414 2.2762954
2.8949149 1.8730936 2.407156
2.915672 1.8791137 2.3854964
2.9364293 1.8820797 2.3638368
2.9571862 1.8802994 2.342177
3.0194578 1.8873125 2.277198
3.040215 1.8866473 2.2555385
2.9382343 1.9000834 2.4486704
3.0212626 1.9097211 2.3620315
3.0420198 1.9062505 2.3403718
2.9580889 1.908261 2.3845937
2.978846 1.9082938 2.362934
2.999603 1.904694 2.3412745
3.0203602 1.9034995 2.319615
3.0411174 1.9179289 2.297955
3.0618744 1.915915 2.2762954
2.8949149 1.9098983 2.407156
2.915672 1.9087291 2.3854964
2.9364293 1.9064515 2.3638368
2.9571862 1.9107835 2.342177
2.9779434 1.9080073 2.3205173
2.9987006 1.9180769 2.2988577
3.0194578 1.9053507 2.277198
3.040215 1.9059037 2.2555385
3.752756 0.006105732 2.6826966
3.7658958 0.03610573 2.6689856
3.7814415 0.06610573 2.652764
3.7714767 0.12610573 2.663162
3.7506976 0.006105732 2.6871052
3.766547 0.006105732 2.660742
3.7856839 0.006105732 2.6375296
3.7597647 0.03610573 2.6957943
3.7675583 0.03610573 2.6617112
3.7866902 0.03610573 2.638494
3.7607691 0.06610573 2.6967568
3.7742321 0.06610573 2.668107
3.787695 0.06610573 2.6394567
3.7617736 0.096105725 2.6977196
3.7752364 0.096105725 2.6690693
3.7915373 0.096105725 2.6431391
3.757113 0.12610573 2.693253
3.7705731 0.12610573 2.6646004
3.7868738 0.12610573 2.63867
3.7963843 0.15610573 2.6477842
3.7703257 0.048543006 2.6643631
3.7910829 0.09255801 2.6427035
3.7910829 0.09902881 2.6427035
3.7910829 0.13938318 2.6427035
3.1623297 1.8661057 2.128114
3.1673996 1.8661057 2.1228237
3.2000709 1.8961058 2.175449
3.2166715 1.8961058 2.1581264
3.2431102 1.8961058 2.130538
3.089032 1.8961058 2.2479572
3.1171706 1.8961058 2.218595
3.1922011 1.8961058 2.1403022
3.2235575 1.8961058 2.1075826
3.1674712 1.8661057 2.128181
3.2166023 1.8961058 2.1752648
3.2553096 1.8961058 2.1292553
3.0894518 1.8961058 2.2611718
3.1321268 1.8961058 2.2189648
3.1517382 1.8961058 2.196207
3.1728916 1.8961058 2.1749272
3.0876203 1.8961058 2.2178648
3.1909559 1.8961058 2.109135
3.1647577 1.8633571 2.1255803
3.208077 1.8871932 2.1670947
3.2495914 1.8894975 2.1237752
3.0826316 1.8879938 2.2546358
3.124146 1.8884605 2.2113166
3.1449032 1.8895835 2.1896567
3.1656601 1.8877728 2.1679971
3.1864173 1.889133 2.1463375
3.2279317 1.891555 2.1030183
3.040215 1.8866473 2.2555385
3.060972 1.8879857 2.2338786
3.0817292 1.889129 2.212219
3.1024864 1.8906659 2.1905594
3.1232433 1.8921807 2.1688998
3.1440005 1.8880781 2.1472402
3.185515 1.8897686 2.1039207
3.2062721 1.8727406 2.082261
3.208077 1.9112848 2.1670947
3.2495914 1.911249 2.1237752
3.0826316 1.9125303 2.2546358
3.124146 1.9157548 2.2113166
3.1449032 1.9130571 2.1896567
3.1656601 1.9152834 2.1679971
3.1864173 1.9041247 2.1463375
3.2279317 1.9120027 2.1030183
3.040215 1.9059037 2.2555385
3.060972 1.9172206 2.2338786
3.0817292 1.9118891 2.212219
3.1024864 1.9024273 2.1905594
3.1232433 1.9008374 2.1688998
3.1440005 1.9066337 2.1472402
3.1647577 1.9109218 2.1255803
3.185515 1.915046 2.1039207
3.2062721 1.8982657 2.082261
3.7931955 0.096105725 2.6404989
3.8384273 0.15610573 2.5933006
3.804814 0.006105732 2.6143107
3.819383 0.006105732 2.5867207
3.8430784 0.006105732 2.567877
3.8622093 0.006105732 2.5446587
3.8841782 0.006105732 2.5241604
3.9014578 0.006105732 2.4991682
3.9240582 0.006105732 2.479275
3.9500768 0.006105732 2.4626575
3.805821 0.03610573 2.6152759
3.8249521 0.03610573 2.592058
3.8412528 0.03610573 2.5661273
3.860384 0.03610573 2.5429094
3.8823526 0.03610573 2.5224109
3.9014833 0.03610573 2.4991925
3.9234476 0.03610573 2.4786897
3.945417 0.03610573 2.4581916
3.8068256 0.06610573 2.6162386
3.8259563 0.06610573 2.5930204
3.8405843 0.06610573 2.5654867
3.859476 0.06610573 2.5420394
3.8805218 0.06610573 2.5206563
3.902488 0.06610573 2.5001552
3.9216187 0.06610573 2.476937
3.941544 0.06610573 2.4544802
3.80783 0.096105725 2.6172013
3.8241308 0.096105725 2.5912707
3.843262 0.096105725 2.5680528
3.8606348 0.096105725 2.54315
3.8795204 0.096105725 2.5196967
3.903496 0.096105725 2.5011213
3.922626 0.096105725 2.4779024
3.9445922 0.096105725 2.4574015
3.8116472 0.12610573 2.6208591
3.8279736 0.12610573 2.5949533
3.8471043 0.12610573 2.5717351
3.8662353 0.12610573 2.5485168
3.8871992 0.12610573 2.5270555
3.9073348 0.12610573 2.5048003
3.9264703 0.12610573 2.4815865
3.9484348 0.12610573 2.4610837
3.815515 0.15610573 2.6245658
3.834647 0.15610573 2.6013486
3.8481085 0.15610573 2.5726976
3.8644094 0.15610573 2.5467672
3.8863783 0.15610573 2.526269
3.9039838 0.15610573 2.5015888
3.92464 0.15610573 2.4798324
3.949444 0.15610573 2.4620512
3.9369886 0.18610573 2.4916666
3.8118398 0.12741278 2.621044
3.832597 0.14689426 2.5993843
3.9363828 0.1846338 2.491086
3.285936 1.8661057 1.9991332
3.2932227 1.8661057 1.9915297
3.3912122 1.8961058 2.019355
3.2551625 1.8961058 2.117962
3.306556 1.8961058 2.0643337
3.4417024 1.9261057 2.0533872
3.4182255 1.9261057 2.034526
3.4143772 1.9261057 1.9951829
3.3829935 1.9261057 1.9845728
3.3640645 1.9261057 1.9609661
3.2899222 1.8661057 1.9962182
3.4011111 1.8961058 2.0196702
3.4208431 1.8961058 1.9970282
3.4423962 1.8961058 1.9761312
3.3176136 1.8961058 2.0643077
3.3351154 1.8961058 2.0395284
3.3564305 1.8961058 2.0184033
3.2522097 1.8961058 2.0847328
3.2758257 1.8961058 2.0658128
3.4698443 1.9261057 2.0439878
3.491366 1.9261057 2.0230603
3.2893007 1.8653415 1.9956224
3.3957937 1.8910501 2.0145745
3.4165509 1.8917935 1.9929148
3.437308 1.890023 1.9712551
3.3118627 1.890369 2.0587964
3.33262 1.8937094 2.0371366
3.3533769 1.8924791 2.015477
3.374134 1.8933872 1.9938172
3.3948913 1.8943607 1.9721576
3.4156485 1.8925455 1.9504979
3.2486887 1.891936 2.0813584
3.269446 1.8885117 2.0596988
3.290203 1.8926378 2.0380392
3.3109603 1.8903217 2.0163794
3.3317173 1.8916796 1.9947197
3.3524745 1.8723963 1.9730601
3.3732316 1.8678128 1.9514005
3.3939888 1.8867114 1.9297408
3.2062721 1.8727406 2.082261
3.227029 1.8899972 2.0606012
3.2477863 1.8909663 2.0389419
3.2685435 1.8805486 2.017282
3.3100576 1.886847 1.9739627
3.3308148 1.8787915 1.952303
3.351572 1.8727436 1.9306434
3.3723292 1.8799443 1.9089837
3.4598703 1.915546 2.034429
3.4806275 1.9133241 2.0127695
3.4382107 1.9171923 2.0136719
3.458968 1.9154032 1.9920123
3.3957937 1.9139316 2.0145745
3.3118627 1.9104273 2.0587964
3.33262 1.9036176 2.0371366
3.3533769 1.9109362 2.015477
3.374134 1.9022267 1.9938172
3.2486887 1.9054681 2.0813584
3.269446 1.9103752 2.0596988
3.290203 1.9011098 2.0380392
3.3109603 1.9039989 2.0163794
3.3317173 1.904516 1.9947197
3.3524745 1.9029602 1.9730601
3.2062721 1.8982657 2.082261
3.227029 1.9035718 2.0606012
3.2477863 1.9031131 2.0389419
3.2685435 1.9169241 2.017282
3.2893007 1.8998394 1.9956224
3.3100576 1.8980837 1.9739627
3.3308148 1.9035476 1.952303
4.0454664 0.006105732 2.4639761
3.972046 0.006105732 2.4421592
3.97305 0.03610573 2.4431214
3.9647355 0.12610573 2.4351535
3.9685745 0.15610573 2.4388325
3.4356582 1.8661057 1.9296181
3.4372377 1.8661057 1.9279699
3.5302558 1.8661057 1.7441905
3.6671941 1.8961058 1.8614495
3.5806515 1.8961058 1.9083964
3.5887086 1.8961058 1.8999889
3.474099 1.8961058 1.9762233
3.5058146 1.8961058 1.9431288
3.561109 1.8961058 1.8854299
3.6378794 1.9261057 1.935397
3.658054 1.9261057 1.914345
3.6845107 1.9261057 1.8867382
3.5337446 1.9261057 2.0007014
3.574874 1.9261057 1.9577836
3.6163132 1.9261057 1.9145427
3.437248 1.8661057 1.9296457
3.4310162 1.8661057 1.9236735
3.5504193 1.8661057 1.7472382
3.6696615 1.8961058 1.8615116
3.5970564 1.8961058 1.9165875
3.6614127 1.8961058 1.8536066
3.4860826 1.8961058 1.9764454
3.5057063 1.8961058 1.9536994
3.5898433 1.8961058 1.8681229
3.60797 1.8961058 1.8439425
3.6362813 1.8961058 1.8295223
3.5064719 1.8961058 1.9128811
3.5223405 1.8961058 1.8865368
3.658001 1.9261057 1.9334407
3.696873 1.9261057 1.8875892
3.5551393 1.9261057 2.0010726
3.5749993 1.9261057 1.9785532
3.6575541 1.9261057 1.8914605
3.491366 1.9261057 2.0230603
3.5108874 1.9261057 2.0002165
3.5752926 1.9261057 1.9372824
3.5925932 1.9261057 1.9123102
3.4364057 1.8651131 1.9288383
3.5383863 1.8580247 1.7357064
3.6683443 1.8933741 1.8602493
3.5844133 1.891792 1.904471
3.479725 1.8896048 1.9703526
3.500482 1.8906041 1.9486929
3.5627537 1.8943034 1.883714
3.5835106 1.8898088 1.8620543
3.6042678 1.882708 1.8403946
3.625025 1.88622 1.818735
3.4580653 1.8916725 1.9495955
3.4788222 1.89285 1.9279357
3.4995794 1.8891314 1.9062761
3.5203366 1.8936974 1.8846164
3.5410938 1.8944336 1.8629566
3.5618508 1.8942546 1.841297
3.582608 1.8833342 1.8196374
3.6033652 1.8871676 1.7979778
3.4571626 1.8952652 1.9071785
3.4779198 1.8908598 1.8855189
3.498677 1.8766105 1.8638593
3.5194342 1.8919771 1.8421996
3.5401912 1.8754895 1.82054
3.5609484 1.885176 1.7988802
3.5817056 1.8855869 1.7772206
3.4147458 1.8759781 1.9080812
3.435503 1.8896657 1.8864214
3.4562602 1.8781205 1.8647618
3.4770172 1.8869226 1.8431021
3.4977746 1.8830814 1.8214424
3.5185316 1.8755391 1.7997828
3.5392888 1.8697668 1.7781231
3.5600457 1.872467 1.7564635
3.3723292 1.8799443 1.9089837
3.3930862 1.8852466 1.8873241
3.4138434 1.8745079 1.8656644
3.4346006 1.8771621 1.8440048
3.4553576 1.8690317 1.822345
3.4761147 1.8724356 1.8006853
3.496872 1.874599 1.7790257
3.5176291 1.8751242 1.7573661
